# .PCD v0.7 - Point Cloud Data file format
VERSION 0.7
FIELDS x y z rgb
SIZE 4 4 4 4
TYPE F F F F
COUNT 1 1 1 1
WIDTH 1007
HEIGHT 1
VIEWPOINT 0 0 0 1 0 0 0
POINTS 1007
DATA ascii
0.4575721 -1.5829269 0.8922736 1.0871119e-38
0.37433964 -1.5791428 0.89238369 6.5408254e-39
0.37694979 -1.5765179 0.89194888 6.5411842e-39
0.45325366 -1.5777237 0.89305848 1.0502698e-38
0.37950635 -1.5744276 0.89294589 6.540824e-39
0.38349617 -1.5712857 0.89276338 6.540824e-39
0.44708809 -1.5726128 0.89269024 9.5814651e-39
0.38763887 -1.5688345 0.89225674 6.6330211e-39
0.39221945 -1.5663985 0.89230514 6.3564342e-39
0.39580464 -1.5650356 0.89407694 6.3564342e-39
0.43668103 -1.5664501 0.89228028 8.0152254e-39
0.44245124 -1.569536 0.89192057 9.0286557e-39
0.39790487 -1.5644026 0.8921445 6.1720443e-39
0.40260947 -1.563044 0.89279789 6.2646015e-39
0.40757638 -1.5622693 0.89205372 8.3883534e-39
0.412002 -1.5618412 0.89225978 8.6656647e-39
0.41807935 -1.5619578 0.89220369 8.6656647e-39
0.42273849 -1.562426 0.89197832 8.572746e-39
0.42793843 -1.5635023 0.89257759 7.1861906e-39
0.43226454 -1.5648222 0.89250195 7.5542515e-39
0.097752944 -1.5284323 0.89187855 8.6689508e-40
-0.065289959 -1.5211799 0.89215493 1.1779175e-40
0.094385169 -1.5182414 0.89196098 8.6581187e-40
-0.061969578 -1.5134627 0.89268845 1.1779175e-40
0.091170207 -1.5113224 0.89210904 8.6545174e-40
-0.05878479 -1.5077467 0.89225119 1.1779175e-40
0.088023394 -1.5054274 0.89176953 8.6473147e-40
-0.05560863 -1.5025777 0.89319527 1.1779175e-40
0.084902041 -1.5004128 0.89264476 8.6437134e-40
-0.052523341 -1.4981294 0.89215529 1.1779175e-40
0.081828952 -1.4961482 0.8931511 8.640098e-40
-0.047395032 -1.4915842 0.89273208 1.1779175e-40
0.078822374 -1.4925127 0.89171898 9.5512503e-40
-0.043344207 -1.4869748 0.89288986 1.1779175e-40
0.072811902 -1.4866533 0.89305252 9.5332296e-40
0.075797908 -1.4895556 0.89321184 9.5440336e-40
-0.040337805 -1.483927 0.89280725 1.1779175e-40
-0.037359249 -1.4813244 0.89250535 1.1779175e-40
0.068863735 -1.4833523 0.89255792 4.1711555e-39
-0.032921255 -1.4781418 0.89250171 1.1779175e-40
-0.028509207 -1.4753274 0.89231724 1.1779175e-40
0.058089588 -1.4757851 0.89208359 1.0440753e-39
0.062484775 -1.4787153 0.89220953 7.4804633e-39
-0.025565915 -1.4736199 0.89318895 1.1779175e-40
-0.022657078 -1.4720988 0.89234793 1.1779175e-40
-0.019733474 -1.4706521 0.89308822 1.1779175e-40
0.049347401 -1.4709005 0.8929612 9.5115936e-40
0.052258871 -1.4724422 0.89217234 9.5115796e-40
0.055162463 -1.4740691 0.89295959 9.5151949e-40
-0.016839616 -1.4693892 0.89211994 8.5763572e-39
-0.012489233 -1.4679377 0.89286435 3.9791944e-39
-0.0067200544 -1.4662112 0.89213568 1.1779175e-40
0.029170355 -1.4650147 0.89436316 2.0962724e-40
0.033484537 -1.4657652 0.8923648 4.2561414e-39
0.037800983 -1.466676 0.89189678 9.2228084e-39
0.042119194 -1.4679558 0.89285505 2.8796964e-39
0.046457738 -1.4695728 0.89202583 8.5788193e-40
-0.0023899786 -1.4649518 0.89278293 1.1779175e-40
0.001445042 -1.4640983 0.89268452 5.7732796e-40
0.0076622567 -1.4633369 0.89200211 7.8409543e-39
0.013397579 -1.4633152 0.89201325 1.404925e-39
0.017698128 -1.4635279 0.8919037 1.1779175e-40
0.022000156 -1.464004 0.89327002 1.1779175e-40
0.027261004 -1.4646972 0.89237618 1.1779175e-40
0.36034805 -1.6070291 0.8979063 8.2954361e-39
0.36222696 -1.6000303 0.8977654 8.2950759e-39
0.36432987 -1.5941515 0.89712441 7.0950824e-39
0.36649728 -1.5901153 0.89901388 7.3716707e-39
0.3678163 -1.587713 0.89676595 6.5411842e-39
0.46130896 -1.5882396 0.89651835 1.170052e-38
0.3714276 -1.5826755 0.89745152 6.6330197e-39
0.45661694 -1.581758 0.89788336 1.0871481e-38
0.37394494 -1.5796216 0.89721042 6.5404639e-39
0.37652233 -1.5768676 0.8968311 6.448627e-39
0.45243657 -1.5770173 0.89844096 1.0410504e-38
0.37907639 -1.5747793 0.89782017 6.3564328e-39
0.3830488 -1.5715857 0.89765763 6.5404653e-39
0.44752273 -1.5729707 0.89811832 9.673302e-39
0.3880167 -1.5686334 0.89794225 6.4489885e-39
0.39135432 -1.5668584 0.89655584 6.4486298e-39
0.39547169 -1.565136 0.89737737 6.3564342e-39
0.43491995 -1.5656332 0.89714026 8.0155884e-39
0.4381887 -1.5672462 0.89804417 8.3840079e-39
0.44174314 -1.5691559 0.8971355 8.8442644e-39
0.39828503 -1.564288 0.89778179 6.3564342e-39
0.40309039 -1.5628843 0.89733696 6.3567985e-39
0.40795791 -1.5622326 0.89764804 8.2032418e-39
0.41200697 -1.5618407 0.89672136 8.6656647e-39
0.41749531 -1.5618992 0.89725041 8.7575002e-39
0.42214739 -1.5623665 0.89702702 8.6649417e-39
0.4262813 -1.5630093 0.89727736 7.4638635e-39
0.43162262 -1.5646262 0.89762044 7.5546102e-39
0.097629495 -1.5281556 0.8969686 8.6689508e-40
-0.065122195 -1.5204759 0.89744055 1.1779175e-40
0.094273791 -1.5181041 0.89696515 8.6581187e-40
-0.06182937 -1.513134 0.8977741 1.1779175e-40
0.091064177 -1.511196 0.89709425 8.6545174e-40
-0.05865087 -1.5074389 0.89731753 1.1779175e-40
0.087924145 -1.5053469 0.89672184 8.6473147e-40
-0.055485003 -1.5023669 0.89820284 1.1779175e-40
0.08480832 -1.5003524 0.89757335 8.6437134e-40
-0.052404493 -1.4979186 0.89715761 1.1779175e-40
0.081739634 -1.4960852 0.89807296 8.640098e-40
-0.048306216 -1.4926928 0.89760047 1.1779175e-40
0.078710832 -1.4924693 0.89825314 9.547635e-40
-0.043240923 -1.4867884 0.8978554 1.1779175e-40
0.072737359 -1.4866304 0.89793485 9.5332296e-40
0.075719252 -1.4895396 0.89809746 9.5440477e-40
-0.040241987 -1.4838052 0.89773655 1.1779175e-40
-0.037270881 -1.4812726 0.8973937 1.1779175e-40
0.067811817 -1.4825268 0.89730114 6.2855257e-39
-0.032838557 -1.4780674 0.89739704 1.1779175e-40
-0.028433345 -1.4752588 0.89720321 1.1779175e-40
0.058037352 -1.4757943 0.89693165 1.0437151e-39
0.062903397 -1.4790596 0.89797288 8.3998959e-39
-0.025495779 -1.4735904 0.89804929 1.1779175e-40
-0.022591099 -1.472067 0.8972106 1.1779175e-40
-0.019672614 -1.4706473 0.89793217 1.1779175e-40
0.049308226 -1.4709326 0.89778721 9.5115936e-40
0.052215278 -1.4724627 0.89700961 9.5115796e-40
0.055115193 -1.4741099 0.89778596 9.5151949e-40
-0.016782774 -1.4693775 0.89696628 8.7603869e-39
-0.012439287 -1.4679468 0.89769506 3.7033278e-39
-0.0071491566 -1.466345 0.89797527 1.1779175e-40
0.029163465 -1.4650288 0.89757508 2.0962724e-40
0.033468038 -1.4657924 0.89718521 3.9802762e-39
0.037770778 -1.4667172 0.89832139 9.3142838e-39
0.042090319 -1.4679843 0.89767599 2.971892e-39
0.046422727 -1.4696069 0.89684945 9.4971742e-40
-0.0023542773 -1.4649415 0.89761966 1.1779175e-40
0.0024290178 -1.4639139 0.89707214 9.4503008e-40
0.0076831169 -1.46334 0.89682966 7.9327898e-39
0.013410049 -1.463325 0.89683735 1.404925e-39
0.017704315 -1.4635537 0.89672029 1.1779175e-40
0.022000156 -1.4640284 0.89808583 1.1779175e-40
0.026296681 -1.4645685 0.89781004 1.1779175e-40
0.36019617 -1.608551 0.90229595 8.2961563e-39
0.36194408 -1.6009538 0.90241522 8.2957962e-39
0.36386847 -1.5950102 0.90348023 8.1106833e-39
0.36409903 -1.5945811 0.90030444 8.4801889e-39
0.36626565 -1.5905471 0.90218413 8.3883534e-39
0.36853617 -1.5863125 0.90247595 8.0184877e-39
0.459701 -1.585534 0.90451998 1.4195592e-38
0.46040463 -1.5865377 0.90068871 1.2994154e-38
0.37222815 -1.5817045 0.90295136 7.7411777e-39
0.45566583 -1.580595 0.9034707 1.2811209e-38
0.37368238 -1.5799401 0.90042186 6.6330197e-39
0.37685168 -1.5765985 0.90311021 7.0025266e-39
0.45190191 -1.5765769 0.90200359 1.0503061e-38
0.38260573 -1.5718974 0.90253252 6.6330197e-39
0.44435629 -1.5705588 0.90316331 9.4892737e-39
0.44795483 -1.5733267 0.90353227 1.0042805e-38
0.38805059 -1.5686154 0.9024111 6.540824e-39
0.39308539 -1.5660425 0.90251416 6.4482697e-39
0.39513934 -1.5652361 0.90067196 6.3564328e-39
0.43427464 -1.5654361 0.9022451 7.7386399e-39
0.43748939 -1.5668705 0.90323567 8.2914508e-39
0.44103718 -1.568777 0.90233481 8.8442658e-39
0.39778334 -1.5644393 0.90271741 6.3564342e-39
0.4015812 -1.5632954 0.90270406 6.1724044e-39
0.40796849 -1.5622315 0.9020983 8.1110448e-39
0.41238141 -1.5618044 0.90230113 8.757859e-39
0.41691279 -1.5618407 0.90228391 8.7575002e-39
0.42310709 -1.562463 0.90198845 8.2957962e-39
0.42769575 -1.5634284 0.9031961 7.0014392e-39
0.43098286 -1.5644311 0.90272117 7.3702204e-39
0.097506411 -1.5278796 0.90204388 8.6689508e-40
-0.064954996 -1.5197741 0.90270817 1.1779175e-40
0.09416274 -1.5179663 0.90195268 8.6581187e-40
-0.061689571 -1.5128061 0.90284473 1.1779175e-40
0.090958498 -1.5110703 0.90206254 8.6545174e-40
-0.058517344 -1.5071318 0.90236896 1.1779175e-40
0.087825224 -1.5052667 0.90165758 8.6473147e-40
-0.055361811 -1.5021567 0.90319258 1.1779175e-40
0.084715061 -1.5002968 0.90248644 8.6437134e-40
-0.052286066 -1.4977086 0.90214241 1.1779175e-40
0.081650585 -1.4960217 0.90297884 8.640098e-40
-0.047180433 -1.4913014 0.9026227 1.1779175e-40
0.078628168 -1.4924556 0.9031285 9.5440336e-40
-0.043137692 -1.4865972 0.90280962 1.1779175e-40
0.072663009 -1.4866074 0.90280449 9.5332296e-40
0.07564038 -1.4895107 0.90297365 9.5440477e-40
-0.040146865 -1.4836923 0.90264475 1.1779175e-40
-0.037182022 -1.4812033 0.90227795 1.1779175e-40
0.06872689 -1.4833242 0.90229136 4.5388562e-39
-0.032756448 -1.4780016 0.90227175 1.1779175e-40
-0.028357681 -1.4751903 0.90207618 1.1779175e-40
0.057968386 -1.4758248 0.90336585 1.0433536e-39
0.061870739 -1.4783889 0.90261501 6.1929699e-39
-0.025425825 -1.4735612 0.90289688 1.1779175e-40
-0.02252534 -1.4720352 0.90205741 1.1779175e-40
-0.019611951 -1.4706428 0.90276039 1.1779175e-40
0.049269117 -1.4709616 0.90259945 9.5115796e-40
0.052171826 -1.472483 0.90183127 9.5115796e-40
0.055068042 -1.4741504 0.90260011 9.5151949e-40
-0.01672608 -1.4693658 0.90179998 8.8522224e-39
-0.012389274 -1.4679475 0.90251768 3.7033278e-39
-0.0061514024 -1.4660627 0.90240192 1.1779175e-40
0.029153157 -1.4650499 0.90238059 2.0962724e-40
0.033451561 -1.465817 0.90199149 3.8884407e-39
0.037748218 -1.46675 0.90312356 9.3146425e-39
0.042061575 -1.4680173 0.90248239 3.0637275e-39
0.046376102 -1.4696465 0.90326345 9.4971742e-40
-0.002318711 -1.4649322 0.90244019 1.1779175e-40
0.0019857595 -1.4639992 0.90291339 6.6916346e-40
0.0077108243 -1.4633462 0.90324455 8.0246253e-39
0.013426602 -1.4633416 0.90324688 1.404925e-39
0.017712541 -1.4635876 0.90312207 1.1779175e-40
0.022000156 -1.4640508 0.90288723 1.1779175e-40
0.026290499 -1.4645903 0.90261364 1.1779175e-40
0.35994333 -1.6110852 0.90960371 8.6649431e-39
0.36004442 -1.6100721 0.90668195 8.5723859e-39
0.36166179 -1.6018766 0.90705782 8.3876317e-39
0.36354303 -1.5957421 0.90819418 8.3879918e-39
0.3659189 -1.5911934 0.90693098 8.2957948e-39
0.36818779 -1.5869619 0.90721273 8.3876317e-39
0.37148324 -1.5826087 0.90700006 8.3883534e-39
0.4590618 -1.5847516 0.90823776 1.3640972e-38
0.37732375 -1.5762191 0.90774727 8.2954375e-39
0.4511025 -1.5759187 0.90732974 1.2535711e-38
0.4550342 -1.5798228 0.90718102 1.345803e-38
0.38217232 -1.5722451 0.90737963 8.0184863e-39
0.44364661 -1.5701778 0.90834743 1.0875826e-38
0.44742751 -1.5728925 0.90707648 1.1705587e-38
0.38758641 -1.5688622 0.90729779 7.1876382e-39
0.39255825 -1.5662974 0.90794724 6.7259384e-39
0.43363118 -1.5652399 0.90733576 7.8311971e-39
0.43702465 -1.5666207 0.90668631 8.3840093e-39
0.44033381 -1.5683994 0.90751469 9.5836371e-39
0.39728278 -1.56459 0.90764141 6.3564342e-39
0.40206578 -1.5631495 0.90721083 6.1724044e-39
0.40742919 -1.5622838 0.90706462 7.9266522e-39
0.41331142 -1.5617422 0.90731978 8.7578604e-39
0.41787776 -1.5619373 0.90722775 8.7574988e-39
0.42251709 -1.5624037 0.90700799 8.5723859e-39
0.42706341 -1.5632355 0.90827847 7.0021595e-39
0.43034494 -1.5642364 0.90780777 7.3702204e-39
0.097384669 -1.5276223 0.90709227 8.6689368e-40
-0.064801827 -1.5193007 0.90784431 1.1779175e-40
0.094051957 -1.5178277 0.90692705 8.6581328e-40
-0.061550297 -1.5124795 0.90789658 1.1779175e-40
0.090853296 -1.5109485 0.90701532 8.6545174e-40
-0.05838431 -1.506826 0.90740168 1.1779175e-40
0.087693766 -1.50516 0.90821677 8.6473147e-40
-0.055236511 -1.5019011 0.90819097 1.1779175e-40
0.084621884 -1.5002363 0.907386 8.6436994e-40
-0.052167997 -1.4974997 0.90711272 1.1779175e-40
0.081561774 -1.4959587 0.90787166 8.640098e-40
-0.049102899 -1.4936235 0.90740478 1.1779175e-40
0.078546099 -1.49245 0.90798414 9.5440336e-40
-0.046057381 -1.4898952 0.90763253 1.1779175e-40
-0.0430356 -1.4864237 0.90773809 1.1779175e-40
0.072588906 -1.4865847 0.90765834 9.5332296e-40
0.075561702 -1.4894817 0.90783709 9.5440477e-40
-0.040052 -1.4835798 0.90753967 1.1779175e-40
-0.037092865 -1.4811198 0.90715307 1.1779175e-40
0.067678176 -1.4824971 0.90700459 6.6532278e-39
-0.033148345 -1.4782567 0.90804452 1.1779175e-40
-0.028282275 -1.4751221 0.90693295 1.1779175e-40
0.057916507 -1.4758348 0.9081825 1.0437137e-39
0.062784128 -1.4790335 0.90765733 8.2158661e-39
-0.025356099 -1.473532 0.90772861 1.1779175e-40
-0.022459753 -1.4720036 0.90689141 1.1779175e-40
-0.019551445 -1.4706383 0.90757608 1.1779175e-40
0.049229987 -1.4709841 0.90740263 9.5115796e-40
0.052114222 -1.4725173 0.90823627 9.5115936e-40
0.05502104 -1.4741906 0.907399 9.5151949e-40
-0.016669568 -1.4693542 0.906618 8.7603869e-39
-0.01233912 -1.4679372 0.90733021 3.6114923e-39
-0.007064315 -1.4663342 0.90760326 1.1779175e-40
0.029142875 -1.465071 0.90717369 2.0962724e-40
0.033908218 -1.4659394 0.90780187 4.9922631e-39
0.037725706 -1.4667808 0.90791148 9.3146425e-39
0.042032924 -1.4680502 0.90727347 3.0637275e-39
0.04634117 -1.4696716 0.90806085 9.4971742e-40
-0.0022833366 -1.4649289 0.90724522 1.1779175e-40
0.0020148847 -1.463995 0.90771568 6.6916346e-40
0.0077315136 -1.4633534 0.90803891 8.1164608e-39
0.013438976 -1.4633541 0.90803856 1.3127308e-39
0.01771869 -1.4636133 0.90790802 1.1779175e-40
0.022000154 -1.464072 0.90767694 1.1779175e-40
0.026284335 -1.464612 0.9074049 1.1779175e-40
0.3598423 -1.6120976 0.91252369 6.8214032e-39
0.36138016 -1.6027982 0.91169161 8.3883534e-39
0.36325955 -1.5966603 0.91281432 8.2957962e-39
0.36545742 -1.5920529 0.91324615 8.2957962e-39
0.46339041 -1.5921544 0.9115243 1.4840238e-38
0.36784023 -1.5876096 0.91193902 8.3879932e-39
0.37192956 -1.5820667 0.91171104 8.3879918e-39
0.45842445 -1.5839716 0.91194463 1.3918645e-38
0.3760232 -1.5773927 0.91276151 8.2957976e-39
0.45282897 -1.5775337 0.91269612 1.2719739e-38
0.38174143 -1.5725977 0.91221106 8.2957976e-39
0.44663915 -1.5722435 0.91237539 1.170631e-38
0.38712329 -1.5691085 0.91217339 8.5727474e-39
0.39303109 -1.5660492 0.91249299 8.2032418e-39
0.43320334 -1.5651094 0.91072017 8.9393565e-39
0.43743053 -1.5668392 0.91212434 1.0323377e-38
0.4431749 -1.5699246 0.91179317 1.1522282e-38
0.3981837 -1.5643188 0.91274774 7.7415392e-39
0.40238059 -1.5630548 0.91333807 7.4645908e-39
0.40689123 -1.5623356 0.9120186 7.8340964e-39
0.41275838 -1.5617678 0.91228437 8.7578604e-39
0.41729635 -1.5618792 0.91223234 8.7578604e-39
0.42192867 -1.5623446 0.91201448 8.6649417e-39
0.4286871 -1.5637307 0.91247028 8.2939899e-39
0.43277639 -1.564979 0.91409749 9.8634835e-39
0.097266905 -1.5274371 0.91209215 8.6689368e-40
-0.06465064 -1.5188543 0.91295201 1.1779175e-40
0.093942121 -1.5177015 0.91187882 8.6581328e-40
-0.061411381 -1.5121529 0.91293389 1.1779175e-40
0.090749316 -1.5108457 0.91194248 8.6545174e-40
-0.058252722 -1.5065403 0.9124105 1.1779175e-40
0.0875955 -1.5050802 0.91311979 8.6473147e-40
-0.055110071 -1.5016165 0.91318595 1.1779175e-40
0.084528856 -1.5001738 0.91227371 8.6473007e-40
-0.05204951 -1.4972751 0.91207349 1.1779175e-40
0.081473261 -1.4958959 0.91274828 8.640098e-40
-0.048989147 -1.4933981 0.91235965 1.1779175e-40
0.078464232 -1.4924444 0.91282725 9.5440336e-40
-0.045949876 -1.4896998 0.91256332 1.1779175e-40
-0.042935997 -1.4862998 0.91262859 1.1779175e-40
0.072514996 -1.4865619 0.91249955 9.5332296e-40
0.075483277 -1.4894528 0.9126848 9.5440477e-40
-0.038973164 -1.4826622 0.91228133 1.1779175e-40
0.0680902 -1.4828801 0.91270792 5.9178249e-39
-0.032092482 -1.4775423 0.91267651 1.1779175e-40
-0.028182598 -1.4750466 0.91337955 1.1779175e-40
0.057864927 -1.4758501 0.91298115 1.0437137e-39
0.061754573 -1.4783607 0.91227102 6.0089402e-39
-0.025286559 -1.4735028 0.91254771 1.1779175e-40
-0.022394424 -1.4719734 0.91170895 1.1779175e-40
-0.019491134 -1.4706336 0.91237628 1.1779175e-40
0.049190983 -1.4710066 0.91219056 9.5115796e-40
0.053522795 -1.4733934 0.91260201 9.5115936e-40
-0.01659476 -1.4693496 0.91301596 8.7603869e-39
-0.01228874 -1.4679129 0.91213739 3.6114923e-39
-0.0060694548 -1.4660459 0.9120062 1.1779175e-40
0.029132625 -1.4650918 0.91195166 2.0962724e-40
0.032940075 -1.4657636 0.91214728 2.7846169e-39
0.037703112 -1.4667989 0.9126935 9.406478e-39
0.042004343 -1.468083 0.91205245 3.155563e-39
0.046306346 -1.4696966 0.91284311 9.4971742e-40
-0.0022481149 -1.4649278 0.91203374 1.1779175e-40
0.002043915 -1.4639908 0.91250253 6.6916346e-40
0.0077520143 -1.4633741 0.91281116 8.1168196e-39
0.01345122 -1.4633808 0.91280776 1.3127308e-39
0.017724831 -1.4636351 0.91268051 1.1779175e-40
0.022000153 -1.464093 0.91245145 1.1779175e-40
0.026278192 -1.4646344 0.91218054 1.1779175e-40
0.35969061 -1.6136138 0.91690075 4.8853076e-39
0.36100528 -1.6040249 0.91785872 8.4801889e-39
0.36297747 -1.5975809 0.91742402 8.388352e-39
0.36511207 -1.5926957 0.91797209 8.5727446e-39
0.46248591 -1.5904557 0.91565132 1.4655849e-38
0.36737782 -1.5884717 0.9182266 8.3883534e-39
0.46158391 -1.5887597 0.91976327 1.4563653e-38
0.36986721 -1.5845704 0.91667545 8.3879932e-39
0.3722451 -1.5816832 0.91799867 8.2961563e-39
0.45747212 -1.5828063 0.91748345 1.3734254e-38
0.37474555 -1.5786511 0.91772771 8.2957934e-39
0.37736651 -1.5761776 0.91720331 8.3879946e-39
0.4531821 -1.5776316 0.9181962 1.2719739e-38
0.37976092 -1.5742188 0.91976398 8.203239e-39
0.38131148 -1.5729496 0.91703224 8.6649431e-39
0.38517189 -1.5701462 0.9183262 8.6653018e-39
0.44829264 -1.5736052 0.91783571 1.2167288e-38
0.38715801 -1.5690899 0.916605 8.2954361e-39
0.39160571 -1.5667278 0.91769952 8.3879918e-39
0.43783474 -1.5670567 0.91754705 1.023154e-38
0.44246942 -1.5695459 0.91694629 1.1060581e-38
0.39768413 -1.5644693 0.9176439 8.4801903e-39
0.40329367 -1.5628763 0.91838276 8.6649431e-39
0.4069027 -1.5623347 0.91643101 8.572746e-39
0.41221416 -1.5618205 0.91722083 8.7578604e-39
0.41825837 -1.5619756 0.91714865 8.7575002e-39
0.4228844 -1.5624406 0.91693252 8.7571387e-39
0.42703453 -1.5632267 0.91711831 8.8493315e-39
0.4323504 -1.564849 0.91746783 9.494338e-39
0.097150445 -1.52727 0.91706628 8.6689368e-40
-0.064502835 -1.5184571 0.91801739 1.1779175e-40
0.093832575 -1.5175755 0.91681719 8.6581328e-40
-0.061272144 -1.511813 0.91795969 1.1779175e-40
0.09064585 -1.5107483 0.9168539 8.6545174e-40
-0.058123469 -1.5062892 0.91738486 1.1779175e-40
0.087530151 -1.5050269 0.91637993 8.6473147e-40
-0.054984003 -1.5013328 0.9181664 1.1779175e-40
0.08443661 -1.5001225 0.91713989 8.6473007e-40
0.087464862 -1.5049721 0.91963434 8.6473147e-40
-0.051931791 -1.4970598 0.91701615 1.1779175e-40
0.081384972 -1.495833 0.91761214 8.640098e-40
-0.048874587 -1.4931488 0.91730905 1.1779175e-40
0.078382626 -1.4924388 0.91765481 9.5440336e-40
-0.045842871 -1.4895089 0.91747844 1.1779175e-40
-0.042837061 -1.4861834 0.91749907 1.1779175e-40
0.07244131 -1.4865391 0.91732508 9.5332296e-40
0.075405061 -1.489424 0.91751987 9.5440477e-40
-0.037898522 -1.4817681 0.91699505 1.1779175e-40
0.068022892 -1.482857 0.91752756 6.0100192e-39
-0.032984957 -1.4781514 0.91770643 1.1779175e-40
-0.028108969 -1.4750153 0.91818619 1.1779175e-40
0.057813473 -1.4758654 0.91776747 9.5187822e-40
0.062665462 -1.4790039 0.91728729 8.1236719e-39
-0.025217241 -1.4734735 0.91735113 1.1779175e-40
-0.022307385 -1.4719266 0.91811478 1.1779175e-40
-0.019430075 -1.4705981 0.91717952 1.1779175e-40
0.049152076 -1.471029 0.91696632 9.5115796e-40
0.053477563 -1.4734099 0.9173826 9.5115936e-40
-0.016537808 -1.4693083 0.91781765 8.7603869e-39
-0.012238524 -1.4678886 0.91692889 3.6114923e-39
-0.0064976919 -1.4661757 0.91777831 1.1779175e-40
0.029119004 -1.4651196 0.91830194 2.0962724e-40
0.033396855 -1.4658858 0.91792208 3.8884407e-39
0.037680589 -1.4668169 0.91746032 9.5905091e-39
0.041975856 -1.4681158 0.91681623 3.155563e-39
0.046271689 -1.4697263 0.91761076 9.5043769e-40
-0.002201302 -1.4649262 0.91839784 1.1779175e-40
0.0020728596 -1.4639874 0.91727662 6.6916346e-40
0.0077724252 -1.463398 0.91756952 8.2086565e-39
0.013463336 -1.4634238 0.9175567 1.2208953e-39
0.017730955 -1.4636567 0.91744101 1.1779175e-40
0.022000153 -1.4641142 0.91721356 1.1779175e-40
0.026272081 -1.464662 0.9169414 1.1779175e-40
0.35948855 -1.6156335 0.92273104 3.5020242e-39
0.36072469 -1.6049432 0.92247546 8.3879932e-39
0.36269581 -1.5985001 0.92202699 8.480549e-39
0.36476746 -1.5933371 0.92268753 8.3879932e-39
0.36857739 -1.5865045 0.92300749 8.4801903e-39
0.46068472 -1.5870675 0.92385989 1.4471819e-38
0.37185508 -1.5821563 0.92276829 8.3876317e-39
0.45652354 -1.5816454 0.92300075 1.3365107e-38
0.37435344 -1.5791268 0.92248923 8.3879932e-39
0.37694156 -1.5765252 0.92202079 8.572746e-39
0.4526493 -1.5771929 0.92171544 1.3089607e-38
0.37947613 -1.5744518 0.92296875 8.6649431e-39
0.38342994 -1.571328 0.92274469 8.3879918e-39
0.44483161 -1.570814 0.92463207 1.1891066e-38
0.44702634 -1.5725625 0.92218029 1.18907e-38
0.38753551 -1.568889 0.92221254 8.3879932e-39
0.3920773 -1.5664738 0.92222232 8.4801903e-39
0.39562422 -1.5650901 0.92395777 8.6649417e-39
0.43477309 -1.565589 0.92372859 9.9549574e-39
0.43671906 -1.5664964 0.92166215 1.0231543e-38
0.44176608 -1.5691683 0.92208421 1.0876188e-38
0.3977066 -1.5644627 0.92204833 8.3879932e-39
0.4023672 -1.563099 0.92267722 8.2954375e-39
0.40728348 -1.5622982 0.92194879 8.5727474e-39
0.41167122 -1.561873 0.92214501 8.7575002e-39
0.41767806 -1.5619173 0.92212456 8.7578604e-39
0.42229712 -1.5623815 0.92191029 8.7571387e-39
0.42742467 -1.5633456 0.92256337 8.7571345e-39
0.43171304 -1.5646546 0.92250943 9.4021438e-39
0.097034298 -1.5271033 0.92202681 8.6689368e-40
-0.064357258 -1.5180913 0.92305303 1.1779175e-40
0.093723819 -1.5174584 0.92173493 8.6617341e-40
-0.061133325 -1.5114743 0.92297059 1.1779175e-40
0.090544529 -1.5106895 0.92173076 8.6581187e-40
-0.057994574 -1.5060389 0.92234498 1.1779175e-40
-0.054858387 -1.50105 0.92312872 1.1779175e-40
0.084344611 -1.5000713 0.92199337 8.6473007e-40
0.08739949 -1.5049127 0.92288452 8.6473147e-40
-0.051814493 -1.4968452 0.92194128 1.1779175e-40
0.081296623 -1.4957616 0.92246413 8.6364967e-40
-0.048760347 -1.4929001 0.92224425 1.1779175e-40
0.078300804 -1.492422 0.92247534 9.5440477e-40
-0.045736298 -1.4893203 0.92237562 1.1779175e-40
-0.042738549 -1.4860708 0.92235464 1.1779175e-40
0.072367832 -1.4865165 0.92213804 9.5332296e-40
0.075327098 -1.4893954 0.92233926 9.5440477e-40
-0.038285241 -1.4820883 0.92269462 1.1779175e-40
0.067955814 -1.4828339 0.92233157 6.1018547e-39
-0.031932686 -1.4774438 0.92230529 1.1779175e-40
0.057762187 -1.4758806 0.92253864 9.5187822e-40
0.061639141 -1.4783343 0.92187005 5.8252692e-39
-0.027072608 -1.4744568 0.92270571 1.1779175e-40
-0.022241585 -1.4718678 0.92291504 1.1779175e-40
-0.019367987 -1.4705205 0.92198765 1.1779175e-40
0.049113549 -1.4710648 0.92172027 9.5043769e-40
0.053903837 -1.473684 0.92308402 9.5115796e-40
-0.016480032 -1.4692299 0.92262185 8.7603869e-39
-0.012655231 -1.4680048 0.92269564 4.4390893e-39
-0.0064562811 -1.4661645 0.92254514 1.1779175e-40
0.029108819 -1.4651406 0.92304945 2.0962724e-40
0.033380542 -1.4659064 0.92267227 3.7966052e-39
0.037658177 -1.4668392 0.92221284 9.5908678e-39
0.041937873 -1.4681504 0.92315239 3.1559231e-39
0.046237644 -1.4697851 0.9223491 9.5043769e-40
-0.0021663047 -1.4649251 0.92315561 1.1779175e-40
0.0021016914 -1.4639853 0.92203474 6.6916346e-40
0.0077925427 -1.4634426 0.9223026 8.300492e-39
0.013475405 -1.4634688 0.92228973 1.2208953e-39
0.017737061 -1.4636781 0.92218637 1.1779175e-40
0.022000156 -1.4641397 0.92195863 1.1779175e-40
0.026265994 -1.4646912 0.92168635 1.1779175e-40
0.35956633 -1.6182116 0.92662865 3.5945744e-39
0.36047256 -1.6059885 0.92702651 8.2957976e-39
0.36241472 -1.5994179 0.92662144 8.4798301e-39
0.36442345 -1.5939773 0.92739451 8.3879932e-39
0.36744547 -1.5883961 0.92768806 8.3876331e-39
0.45990366 -1.5857835 0.92775893 1.3917919e-38
0.37146607 -1.582628 0.92752606 8.3876331e-39
0.45589358 -1.5808744 0.92666477 1.3734975e-38
0.3739621 -1.5796014 0.92724138 8.6649417e-39
0.37651771 -1.5768719 0.9268254 8.4801889e-39
0.45185277 -1.5765369 0.92697704 1.2720462e-38
0.3790499 -1.5748007 0.92776567 8.388352e-39
0.38298652 -1.5716254 0.92756057 8.2957962e-39
0.44436061 -1.5705612 0.9280448 1.1429723e-38
0.44819599 -1.5735255 0.92669576 1.1890338e-38
0.38840541 -1.5684264 0.92737007 8.3883534e-39
0.39239308 -1.5663059 0.9283374 8.3876331e-39
0.39529425 -1.5651895 0.92720377 8.1110434e-39
0.43434602 -1.5654587 0.92708075 9.6780076e-39
0.43754297 -1.5669003 0.92806602 1.0508131e-38
0.44106531 -1.5687921 0.92720306 1.1061302e-38
0.39808387 -1.5643489 0.92758811 8.1106847e-39
0.40284213 -1.5629317 0.92714071 8.5727446e-39
0.40820897 -1.5622084 0.92692429 8.7574988e-39
0.41259021 -1.5617838 0.9271189 8.850056e-39
0.41709965 -1.5618593 0.92708433 8.7578604e-39
0.42324996 -1.5624774 0.92680097 8.6649431e-39
0.42781347 -1.5634642 0.92799264 8.5720202e-39
0.43107754 -1.5644605 0.92753708 9.1251925e-39
0.096918553 -1.5269372 0.92697024 8.6689368e-40
-0.064212218 -1.5177269 0.92806983 1.1779175e-40
0.093582243 -1.5173633 0.92824137 8.6653354e-40
-0.060996354 -1.5111601 0.92795175 1.1779175e-40
0.090409942 -1.5106126 0.92821121 8.6581187e-40
-0.057864919 -1.5057669 0.92729807 1.1779175e-40
-0.054733135 -1.5007681 0.9280768 1.1779175e-40
0.084282383 -1.5000129 0.92523229 8.6436994e-40
0.087301701 -1.5048239 0.92774683 8.6473147e-40
-0.05169753 -1.4966313 0.92685258 1.1779175e-40
0.082715042 -1.4978385 0.92787635 8.640084e-40
-0.048646614 -1.4926541 0.92716086 1.1779175e-40
0.07821843 -1.4923846 0.92729044 9.5440336e-40
-0.04563003 -1.4891319 0.92725915 1.1779175e-40
-0.042640738 -1.4859667 0.92718989 1.1779175e-40
0.072294325 -1.4864863 0.92693919 9.536817e-40
0.075249344 -1.4893667 0.9271462 9.5440477e-40
-0.038195845 -1.4820268 0.92750233 1.1779175e-40
0.068364151 -1.4831978 0.92799646 5.1824235e-39
-0.032820877 -1.4780035 0.92733222 1.1779175e-40
0.057711031 -1.4758958 0.92729759 9.5187822e-40
0.062055342 -1.478649 0.92754793 6.9287315e-39
-0.026038215 -1.4738674 0.92722636 1.1779175e-40
-0.022176204 -1.4718159 0.92769641 1.1779175e-40
-0.019285481 -1.4704175 0.92837727 1.1779175e-40
0.049062878 -1.4711406 0.92802525 9.5043769e-40
0.0529004 -1.4731569 0.92757207 9.5115796e-40
-0.016422406 -1.4691517 0.92741334 8.7603869e-39
-0.011655423 -1.4677047 0.92706537 2.4161945e-39
-0.007844287 -1.4665797 0.92708814 1.1779175e-40
-0.0049857181 -1.4657269 0.92750525 1.1779175e-40
0.029098667 -1.4651612 0.92778194 2.0962724e-40
0.033364281 -1.4659266 0.9274075 3.7966052e-39
0.037635833 -1.4668615 0.92695034 9.5908678e-39
0.041909341 -1.4681659 0.92789447 3.1559231e-39
0.04620368 -1.4698436 0.92707574 9.5043769e-40
-0.0021314193 -1.4649239 0.92789805 1.1779175e-40
0.00166291 -1.4640746 0.92778772 3.9365697e-40
0.0078126099 -1.4634871 0.92702383 8.3923275e-39
0.013487436 -1.4635152 0.92701006 1.2208953e-39
0.017743152 -1.4636996 0.9269197 1.1779175e-40
0.022000162 -1.4641733 0.92826521 1.1779175e-40
0.026257902 -1.4647298 0.92799294 1.1779175e-40
0.3602567 -1.6079314 0.9328413 7.188727e-39
0.36204058 -1.6006391 0.93273628 7.5564235e-39
0.36408022 -1.5946162 0.932091 8.388352e-39
0.36634189 -1.5904026 0.93231302 8.2032404e-39
0.46364969 -1.5926416 0.93462694 1.5117188e-38
0.36859274 -1.5862046 0.93253446 8.3879932e-39
0.45926827 -1.585006 0.93141896 1.4379986e-38
0.3722598 -1.5816658 0.93291736 8.5723859e-39
0.45526558 -1.5801064 0.93031782 1.308816e-38
0.37370175 -1.5799172 0.93040311 8.2950759e-39
0.37684426 -1.5766047 0.93299395 8.2957976e-39
0.45284924 -1.577612 0.93309081 1.3089244e-38
0.38254827 -1.5719385 0.9323557 8.5723859e-39
0.44365624 -1.570183 0.93314862 1.1522642e-38
0.44741032 -1.5728786 0.93193066 1.2259848e-38
0.38794401 -1.5686717 0.93219137 8.203239e-39
0.39384279 -1.5657434 0.93242449 8.2957962e-39
0.43370718 -1.5652637 0.93209505 9.7709249e-39
0.43685091 -1.5665283 0.93316215 1.0046789e-38
0.44036663 -1.5684172 0.93230665 1.0692518e-38
0.39758667 -1.5644989 0.93244249 8.572746e-39
0.40175992 -1.563242 0.93301302 8.5723859e-39
0.407673 -1.5622602 0.9318223 8.572746e-39
0.41351825 -1.5617418 0.93205822 8.7582205e-39
0.41805726 -1.5619552 0.93196106 8.8496945e-39
0.42304531 -1.5624567 0.93282408 8.6653032e-39
0.42718562 -1.563273 0.9329989 8.9411684e-39
0.43044415 -1.5642672 0.93254745 9.4021452e-39
0.09680213 -1.526752 0.93190938 8.6653494e-40
-0.06406761 -1.5173635 0.93307173 1.1779175e-40
0.093476869 -1.5173018 0.9331007 8.6653354e-40
-0.060862787 -1.5108999 0.93289351 1.1779175e-40
0.090310149 -1.5105728 0.93304741 8.6617341e-40
-0.057734482 -1.5054749 0.9322468 1.1779175e-40
-0.054609306 -1.5005053 0.93299824 1.1779175e-40
0.087204255 -1.5047376 0.93259519 8.6509021e-40
-0.051580969 -1.496418 0.9317466 1.1779175e-40
0.082626209 -1.4977967 0.93268824 8.640098e-40
-0.048534952 -1.4924446 0.93204647 1.1779175e-40
0.07813447 -1.492301 0.93211502 9.5440336e-40
-0.045524254 -1.4889472 0.93212438 1.1779175e-40
-0.042543419 -1.4858681 0.9320097 1.1779175e-40
0.072195619 -1.4864178 0.93333364 9.5332156e-40
0.07516975 -1.4892819 0.9319644 9.5440336e-40
-0.038107052 -1.4819723 0.93229097 1.1779175e-40
0.067324728 -1.4823929 0.93261808 7.2049582e-39
-0.031767737 -1.4771837 0.93195552 1.1779175e-40
0.057660036 -1.4759109 0.93204159 1.4114158e-39
0.061997399 -1.4786371 0.93231094 8.3077016e-39
-0.026924064 -1.4742452 0.93231893 1.1779175e-40
-0.02353573 -1.4725008 0.93368763 1.1779175e-40
-0.019223064 -1.4703149 0.93316591 5.4503574e-39
0.049024321 -1.471162 0.93275636 9.5007756e-40
0.05381212 -1.473688 0.93258804 1.0433536e-39
-0.016364938 -1.4690723 0.93218958 8.7603869e-39
-0.012072655 -1.4678267 0.93279338 3.2437915e-39
-0.007786667 -1.4665649 0.93340504 1.1779175e-40
-0.0049466155 -1.4657156 0.93224317 1.1779175e-40
0.029088542 -1.4651821 0.93250239 2.0962724e-40
0.033348061 -1.4659472 0.93213075 3.7966052e-39
0.037606135 -1.4668911 0.93324691 9.5908678e-39
0.041880943 -1.468184 0.93262017 3.1555616e-39
0.046169683 -1.4698937 0.93179154 9.5007756e-40
-0.002096625 -1.4649225 0.93262839 1.1779175e-40
0.002636208 -1.463889 0.93208104 7.6135769e-40
0.0078326128 -1.4635315 0.93173027 8.4845217e-39
0.013499426 -1.463562 0.93171543 1.404925e-39
0.017749224 -1.463721 0.931638 1.1779175e-40
0.022000168 -1.4641986 0.93298018 1.1779175e-40
0.026251853 -1.4647586 0.93270802 1.1779175e-40
0.36010629 -1.6094391 0.93717486 7.0968971e-39
0.3617605 -1.6015534 0.93731397 6.725574e-39
0.36363423 -1.5955143 0.93831784 7.002884e-39
0.365998 -1.5910435 0.93698907 8.1110448e-39
0.46275032 -1.5909526 0.93868095 1.3917196e-38
0.36824733 -1.5868484 0.93720078 8.6649417e-39
0.37187153 -1.5821369 0.93764877 8.3883534e-39
0.45831889 -1.5838442 0.9368878 1.3918283e-38
0.37731227 -1.5762283 0.93754673 8.480549e-39
0.45151725 -1.5763474 0.9374935 1.2904856e-38
0.38160586 -1.5727081 0.93802851 8.1110434e-39
0.44662726 -1.5722339 0.93714833 1.1613751e-38
0.38748392 -1.5689163 0.9369992 8.480549e-39
0.39241123 -1.5663625 0.93760294 8.6645815e-39
0.43307006 -1.5650693 0.9370957 9.7709263e-39
0.43791598 -1.5671008 0.93781537 1.0600687e-38
0.44295388 -1.5698061 0.93823743 1.0968742e-38
0.3984805 -1.5642297 0.93747413 8.1110434e-39
0.40264714 -1.5629749 0.93803972 8.2032404e-39
0.40713868 -1.5623118 0.93670523 8.6653032e-39
0.41296524 -1.5617526 0.9369579 8.850056e-39
0.4174799 -1.5618973 0.93689251 8.7578604e-39
0.42150322 -1.5623016 0.93725425 8.6653018e-39
0.42818606 -1.5635784 0.93776774 8.7564128e-39
0.096678056 -1.5264081 0.93690509 8.6653494e-40
-0.063923076 -1.5169935 0.93805873 1.1779175e-40
0.093367502 -1.5171511 0.93798554 8.6617201e-40
-0.060729869 -1.5106437 0.93781614 1.1779175e-40
0.090221658 -1.5107679 0.93775833 8.6617341e-40
-0.057604514 -1.5051837 0.93717766 1.1779175e-40
-0.054486893 -1.5002636 0.93789613 1.1779175e-40
0.087114356 -1.5048127 0.93735194 8.6545174e-40
-0.051423591 -1.4960852 0.93827242 1.1779175e-40
0.082539812 -1.4978085 0.93746233 8.640098e-40
-0.048424557 -1.4922538 0.9369064 1.1779175e-40
0.078050181 -1.4922019 0.93693101 9.547635e-40
-0.045418859 -1.4887646 0.93697524 1.1779175e-40
-0.042447936 -1.4858035 0.93679744 1.1779175e-40
0.072121516 -1.4863571 0.93811816 9.5332156e-40
0.075063355 -1.489152 0.93837559 9.5440336e-40
-0.038491055 -1.482296 0.93794042 1.1779175e-40
0.068229131 -1.4831376 0.93753958 4.262991e-39
-0.032154057 -1.4773195 0.93768287 1.1779175e-40
0.057592258 -1.4759309 0.93834674 8.6746821e-39
0.06193969 -1.4786268 0.93705797 1.0790134e-38
-0.02780484 -1.474553 0.93743128 1.1779175e-40
-0.023001879 -1.4722031 0.93750787 1.1779175e-40
-0.019160785 -1.4702101 0.93793976 5.5421943e-39
0.048985668 -1.4711717 0.93747795 9.5079782e-40
0.052811649 -1.4731588 0.93704933 1.9627861e-39
-0.016307365 -1.4689839 0.93695766 8.7603869e-39
-0.012023265 -1.4678111 0.93752217 3.1519561e-39
-0.0077435914 -1.4665537 0.93812746 1.1779175e-40
-0.0049076369 -1.4657043 0.93696594 1.1779175e-40
0.029078446 -1.4652026 0.93720806 2.0962724e-40
0.033331908 -1.4659691 0.93683815 3.6118538e-39
0.037583932 -1.4669133 0.93795443 9.6827033e-39
0.041852534 -1.4681967 0.93733656 3.1555616e-39
0.046123452 -1.4698991 0.93808919 9.5007756e-40
-0.0020619407 -1.4649215 0.9373436 1.1779175e-40
0.0021969383 -1.4639995 0.93778843 2.1403279e-39
0.0078592012 -1.4635905 0.93798578 8.7603869e-39
0.013515363 -1.4636242 0.93796951 1.4967605e-39
0.017757293 -1.4637494 0.93790913 1.1779175e-40
0.022000171 -1.4642236 0.9376803 1.1779175e-40
0.026245821 -1.4647876 0.93740821 1.1779175e-40
0.35990596 -1.6114471 0.94294673 6.359702e-39
0.36000609 -1.6104436 0.94006169 6.8206745e-39
0.36148089 -1.6024659 0.94188333 6.7259342e-39
0.36334419 -1.5963843 0.94289118 6.6333784e-39
0.36554053 -1.5918963 0.94320989 6.7252153e-39
0.36790267 -1.587491 0.94185674 7.556785e-39
0.4618547 -1.5892706 0.94271845 1.2069668e-38
0.37100506 -1.5831881 0.9432084 8.1110434e-39
0.45737314 -1.5826868 0.94233561 1.4011202e-38
0.3760227 -1.577392 0.94249439 8.3876331e-39
0.45312613 -1.5775915 0.94295073 1.2996687e-38
0.38206378 -1.572333 0.94256037 8.480549e-39
0.38539398 -1.5700278 0.94467396 8.6649431e-39
0.44705829 -1.5725889 0.94244647 1.1983258e-38
0.38702482 -1.5691605 0.94179618 8.2032418e-39
0.39287758 -1.5661055 0.94207287 8.2036006e-39
0.43722746 -1.5667379 0.94287777 1.0046789e-38
0.44225416 -1.5694304 0.9433074 1.133789e-38
0.39798424 -1.5643792 0.94230133 8.572746e-39
0.40302968 -1.5629297 0.94349241 8.6649431e-39
0.40697208 -1.5623279 0.94267678 8.6649417e-39
0.41242307 -1.5617999 0.94182885 8.7582205e-39
0.4188163 -1.5620314 0.94280958 8.6653032e-39
0.42283356 -1.5624354 0.94317114 8.6653018e-39
0.42755938 -1.5633872 0.94274515 8.9415286e-39
0.43243518 -1.5648755 0.94207907 9.5858148e-39
-0.067184299 -1.5269551 0.9430809 1.1779175e-40
0.096553989 -1.5260582 0.94188929 8.6653494e-40
-0.063777454 -1.5165987 0.94304281 1.1779175e-40
0.093250245 -1.5168322 0.94293511 8.6545174e-40
-0.060597323 -1.5103881 0.94272488 1.1779175e-40
0.090129085 -1.5108711 0.94250089 8.6545314e-40
0.087032661 -1.5050663 0.94201374 9.5836904e-40
-0.057474919 -1.5048934 0.94209433 1.1779175e-40
-0.054367822 -1.500078 0.94275087 1.1779175e-40
0.083927304 -1.5000317 0.9443596 9.5728724e-40
-0.051304065 -1.4957988 0.94316697 1.1779175e-40
0.081961349 -1.4970497 0.94152468 8.6436994e-40
-0.048279464 -1.492033 0.94334859 1.1779175e-40
0.077940479 -1.4921299 0.94330311 9.5512503e-40
-0.045315765 -1.4886242 0.94178981 1.1779175e-40
-0.042321246 -1.4857222 0.94315797 1.1779175e-40
0.073027156 -1.4872378 0.94297057 9.5404323e-40
-0.03742902 -1.4814868 0.942532 1.1779175e-40
0.067193069 -1.4823385 0.94212884 2.2397346e-39
-0.03208001 -1.4774182 0.94236177 1.1779175e-40
0.057541445 -1.4759402 0.94306338 1.1065279e-38
0.062352967 -1.4789478 0.94268483 6.8365372e-39
-0.027732391 -1.4745241 0.94216454 1.1779175e-40
-0.023890445 -1.472651 0.9425332 1.1779175e-40
-0.019102424 -1.4702353 0.94263893 5.726224e-39
0.048947401 -1.4711967 0.9421804 1.7780362e-39
0.053237211 -1.4734318 0.94268435 8.5824865e-39
-0.016252099 -1.4689741 0.94167244 8.8522224e-39
-0.01197423 -1.4678034 0.94223207 3.0597618e-39
-0.0077006547 -1.4665427 0.94283473 1.1779175e-40
-0.0048558563 -1.4656906 0.94324207 1.0368656e-39
0.029068379 -1.4652231 0.94190162 2.0962724e-40
0.033310488 -1.4660034 0.94309253 3.335627e-39
0.037561797 -1.4669354 0.94264704 9.6827033e-39
0.041824192 -1.4682077 0.94203877 3.1555616e-39
0.046088722 -1.4698933 0.94280201 1.3177783e-39
-0.0020273458 -1.4649203 0.94204676 1.4049264e-39
0.0022251066 -1.4640217 0.94247735 7.4728935e-39
0.0078790803 -1.4636345 0.94266284 8.5763572e-39
0.013527278 -1.4636707 0.94264543 1.1290598e-39
0.0177633 -1.4637793 0.9425934 1.1779175e-40
0.022000175 -1.4642487 0.94236851 1.1779175e-40
0.026239809 -1.4648163 0.94209659 1.1779175e-40
0.35975584 -1.6129516 0.94727099 5.3459186e-39
0.36110899 -1.6036814 0.94796419 6.6337385e-39
0.36306447 -1.5972972 0.94743645 6.5408226e-39
0.36519814 -1.5925344 0.94786525 6.4489871e-39
0.36744413 -1.5883458 0.94805098 6.5408226e-39
0.46096134 -1.5875906 0.94674164 1.1423573e-38
0.3697902 -1.5846623 0.9480238 6.6333798e-39
0.37227663 -1.5816456 0.94770926 7.2794737e-39
0.45643196 -1.5815349 0.94775724 1.1887083e-38
0.3747558 -1.5786394 0.94739622 8.2035992e-39
0.37735474 -1.5761876 0.94684219 8.5723859e-39
0.45233101 -1.5769311 0.94814783 1.2997049e-38
0.37972873 -1.5742445 0.94932985 8.6649431e-39
0.38126615 -1.5729859 0.94662476 8.203239e-39
0.38509005 -1.5701895 0.94786119 8.1106819e-39
0.44748685 -1.5729419 0.94773102 1.2075094e-38
0.3878921 -1.5686991 0.94689226 8.480549e-39
0.39185745 -1.5665904 0.9478268 8.572746e-39
0.43462843 -1.5655456 0.94991452 1.014007e-38
0.43720767 -1.5667582 0.94721079 1.0416296e-38
0.44155651 -1.569056 0.94836235 1.0784352e-38
0.39748913 -1.5645283 0.94711727 8.1106847e-39
0.40304533 -1.5629241 0.9478299 8.2957962e-39
0.40734982 -1.5622914 0.94811106 8.7574974e-39
0.41188389 -1.561852 0.94668257 8.7578604e-39
0.41728473 -1.5618777 0.94721246 8.7578604e-39
0.42225075 -1.5623769 0.94807309 8.6649431e-39
0.42693433 -1.5631964 0.94770896 8.4798259e-39
0.43180203 -1.5646822 0.94704884 9.4939779e-39
-0.066987656 -1.5257974 0.94841522 1.1779175e-40
0.096471339 -1.525822 0.94520396 8.6653494e-40
0.096357584 -1.5249656 0.94879371 7.7289598e-40
-0.063632354 -1.516205 0.94800842 1.1779175e-40
0.093142755 -1.5167072 0.94777828 8.6545174e-40
-0.06046408 -1.5101126 0.94762564 1.1779175e-40
0.089986518 -1.5105879 0.94899637 8.6473007e-40
0.090062477 -1.5108314 0.94570506 8.6545174e-40
0.086946584 -1.5052158 0.94671023 8.6509161e-40
-0.057350565 -1.5046916 0.94695276 1.1779175e-40
0.083867908 -1.5000204 0.94753301 8.6437134e-40
-0.052207917 -1.4970045 0.9478789 1.1779175e-40
0.080835044 -1.4955151 0.94804335 9.558453e-40
-0.048172653 -1.4919015 0.94814789 1.1779175e-40
0.077858962 -1.4920889 0.94806051 9.5512503e-40
-0.045183424 -1.4885372 0.94814098 1.1779175e-40
-0.042227216 -1.4856764 0.94790572 1.1779175e-40
0.073930532 -1.488129 0.94780761 9.5404323e-40
-0.038317114 -1.4822756 0.94740409 1.1779175e-40
0.06760022 -1.4826801 0.94773722 9.5296143e-40
-0.032006595 -1.4775249 0.94702244 1.1779175e-40
0.057490453 -1.4759359 0.94777149 6.1004141e-39
0.061335731 -1.4783086 0.94717664 2.5152397e-39
-0.027644619 -1.4747303 0.94834 1.1779175e-40
-0.022874713 -1.4722599 0.9468984 1.1779175e-40
-0.019048778 -1.4704173 0.94724905 5.726224e-39
0.048909251 -1.4712213 0.94686806 8.5817648e-39
0.053192511 -1.4734341 0.94738698 1.0881247e-38
-0.016182587 -1.4691074 0.94786936 8.8522224e-39
-0.012388725 -1.4679407 0.94790179 3.8869988e-39
-0.0076578278 -1.4665318 0.94752991 2.4161945e-39
-0.0048171543 -1.4656807 0.94793391 7.0133573e-39
0.02905836 -1.4652474 0.94657868 2.0962724e-40
0.033294421 -1.4660234 0.94777119 3.2437915e-39
0.037539721 -1.4669573 0.94732785 9.6827033e-39
0.042262807 -1.4683851 0.94769126 3.7072934e-39
0.046054102 -1.4698875 0.94749981 5.6390759e-39
-0.0019928794 -1.4649203 0.94673443 7.9327898e-39
0.0022531436 -1.4640465 0.94715011 8.2086551e-39
0.0078988969 -1.4636785 0.94732529 3.4274611e-39
0.013539156 -1.4637172 0.94730687 2.0962724e-40
0.017769231 -1.4638281 0.94725406 1.1779175e-40
0.022000179 -1.4642737 0.94704205 1.1779175e-40
0.026233811 -1.4648449 0.94677019 1.1779175e-40
0.35950565 -1.6154549 0.95447052 3.6867714e-39
0.35960579 -1.6144545 0.95159197 4.1477454e-39
0.36083072 -1.6045921 0.95251632 7.002884e-39
0.36269227 -1.5985124 0.95348579 6.7259356e-39
0.36485654 -1.5931711 0.9525103 6.6337385e-39
0.36818942 -1.5871348 0.95348871 6.725574e-39
0.45947212 -1.5852571 0.95430291 1.1331377e-38
0.46010369 -1.58603 0.95069945 1.1331736e-38
0.36953384 -1.5849737 0.95115972 6.5408226e-39
0.37188989 -1.5821148 0.95240551 6.725574e-39
0.4554944 -1.5803876 0.95315808 1.0963675e-38
0.374367 -1.5791109 0.95208466 6.7259356e-39
0.37679324 -1.5766468 0.95316088 7.0028854e-39
0.45180404 -1.5764972 0.951599 1.133499e-38
0.37944639 -1.5744755 0.95248425 7.8337349e-39
0.38336486 -1.5713695 0.95221967 8.4805504e-39
0.44436511 -1.5705638 0.95257318 1.1706673e-38
0.44791293 -1.5732929 0.9530021 1.1705946e-38
0.38728148 -1.5690238 0.95324928 8.3883534e-39
0.39139488 -1.5668364 0.95258951 8.1110434e-39
0.39561063 -1.5650942 0.95173508 8.5727446e-39
0.4342047 -1.5654162 0.95321441 9.5858106e-39
0.43759555 -1.5669296 0.9525485 1.0138623e-38
0.44109279 -1.568807 0.95172238 1.1060943e-38
0.39838028 -1.56426 0.95210302 8.5727474e-39
0.40253255 -1.5630261 0.95264727 8.5723859e-39
0.40826824 -1.5622025 0.9530105 8.6649417e-39
0.41261646 -1.561781 0.95319641 8.7578604e-39
0.41709247 -1.5618582 0.95316225 8.7578604e-39
0.42319649 -1.5624719 0.95289165 8.6653018e-39
0.42792979 -1.5634999 0.95243812 9.1259198e-39
0.43117106 -1.5644897 0.95200157 9.4943408e-39
-0.066863813 -1.5251404 0.95190674 1.1779175e-40
0.096244223 -1.5241129 0.95237207 8.6653354e-40
-0.06348829 -1.5158226 0.95295435 1.1779175e-40
0.093033791 -1.5165461 0.95262516 8.6545314e-40
0.089907676 -1.5102795 0.95231056 8.6437134e-40
-0.060330473 -1.5098248 0.9525184 1.1779175e-40
0.086844929 -1.5050111 0.95155853 8.6437134e-40
-0.057226248 -1.5044848 0.95180029 1.1779175e-40
0.086772084 -1.5047566 0.95483577 8.6437134e-40
-0.053112399 -1.4982778 0.95255119 1.1779175e-40
0.082769431 -1.4985012 0.95244837 8.6436994e-40
-0.048067592 -1.4917991 0.95291787 1.1779175e-40
0.077778004 -1.4920554 0.9527992 9.5512503e-40
-0.045085326 -1.48849 0.95288044 1.1779175e-40
-0.042133603 -1.4856334 0.95263684 1.1779175e-40
0.072879277 -1.4871761 0.9524436 9.5404323e-40
-0.037259206 -1.4814873 0.95195645 1.1779175e-40
0.067535304 -1.482688 0.95244092 9.5296283e-40
-0.0324024 -1.4779892 0.95254678 1.1779175e-40
0.057439595 -1.4759316 0.95246756 1.043355e-39
0.06174951 -1.4786325 0.9527669 9.5223976e-40
-0.0275786 -1.4748731 0.95296311 1.1779175e-40
-0.023280073 -1.4726337 0.95245147 1.1779175e-40
-0.018974723 -1.4705641 0.95342255 1.1779175e-40
0.048858505 -1.471252 0.95309979 9.3171662e-39
0.053148083 -1.4734432 0.95207155 5.6405164e-39
-0.016131233 -1.4692303 0.95249206 9.0362535e-39
-0.011397262 -1.4676542 0.95219517 6.5538197e-39
-0.0076151416 -1.4665208 0.95221007 8.484163e-39
-0.0047786906 -1.465677 0.95260781 8.6681927e-39
0.029045034 -1.4652777 0.9527961 2.0962724e-40
0.033278365 -1.4660375 0.95243794 3.1515973e-39
0.037517615 -1.4669702 0.95199817 9.8663743e-39
0.041291531 -1.4680732 0.95199776 8.3044562e-39
0.046019584 -1.4698824 0.95218533 1.0880526e-38
-0.0019471664 -1.4649258 0.95296198 6.8293276e-39
0.0022903387 -1.464085 0.95335841 2.0484924e-39
0.0079186652 -1.4637222 0.95197606 1.1779175e-40
0.013551005 -1.4637635 0.95195663 1.1779175e-40
0.017777115 -1.4638927 0.95344895 1.1779175e-40
0.022000184 -1.4643068 0.95325375 1.1779175e-40
0.026225843 -1.464883 0.95298219 1.1779175e-40
0.3595244 -1.6177386 0.95845497 3.5934968e-39
0.36055547 -1.6055124 0.95705521 7.0028868e-39
0.36241359 -1.5994219 0.95801455 6.4489871e-39
0.36451542 -1.5938064 0.9571473 6.7255726e-39
0.36751315 -1.5882806 0.95734698 6.6333784e-39
0.3715041 -1.5825826 0.95709026 6.6333784e-39
0.45884228 -1.5844864 0.95789611 1.1147346e-38
0.3738499 -1.5797381 0.95832062 6.5408226e-39
0.37637317 -1.5769902 0.95788753 6.5411814e-39
0.45230135 -1.5771074 0.95675427 1.0410863e-38
0.37902379 -1.5748215 0.95720583 6.6333798e-39
0.3824122 -1.572072 0.95786148 7.0028854e-39
0.44366544 -1.570188 0.95760232 1.0414121e-38
0.44713378 -1.5726513 0.95814872 9.7662165e-39
0.38868582 -1.568277 0.95735651 8.388352e-39
0.39309844 -1.5660343 0.95833474 8.6649417e-39
0.39511985 -1.5652422 0.95652723 8.2957976e-39
0.43357092 -1.5652227 0.95815074 9.8634821e-39
0.43690848 -1.5665603 0.95756644 1.0508493e-38
0.44039923 -1.5684347 0.95674765 1.0876911e-38
0.3978861 -1.564409 0.95689207 7.9266522e-39
0.40202942 -1.5631611 0.95743847 8.111405e-39
0.40773627 -1.562254 0.95783567 8.6649431e-39
0.41353771 -1.5617404 0.95806056 8.7582205e-39
0.41804296 -1.5619537 0.95796716 8.7574988e-39
0.42261481 -1.5624135 0.95776582 8.6649417e-39
0.42730594 -1.5633097 0.95737344 8.4798245e-39
0.43054181 -1.5642977 0.95694077 9.1248338e-39
-0.066679113 -1.5241648 0.95712185 1.1779175e-40
0.09612906 -1.5239165 0.95723379 8.6617341e-40
-0.063348152 -1.5154999 0.95785564 1.1779175e-40
0.092918776 -1.5162528 0.95751548 8.6509161e-40
0.089801788 -1.510077 0.95714891 8.6509161e-40
-0.060197335 -1.5095379 0.95739365 1.1779175e-40
-0.057103433 -1.5042982 0.956622 1.1779175e-40
0.086699866 -1.5045133 0.95810097 8.6509161e-40
-0.051982451 -1.4967279 0.95746011 1.1779175e-40
0.081674293 -1.4969867 0.95734161 8.640098e-40
-0.047964327 -1.4917281 0.95766073 1.1779175e-40
0.077698618 -1.4920576 0.9575094 9.5512503e-40
-0.045020409 -1.4884652 0.95602876 1.1779175e-40
-0.043497968 -1.4870164 0.95826304 1.1779175e-40
0.07377959 -1.4880482 0.9572652 9.5404323e-40
-0.037645083 -1.4818593 0.95751673 1.1779175e-40
0.067471057 -1.48271 0.95712316 9.5296283e-40
-0.031363696 -1.4773278 0.9570179 1.1779175e-40
0.057388894 -1.4759274 0.95714867 9.5151949e-40
0.061692826 -1.4786351 0.95745075 9.5223976e-40
-0.027510323 -1.4749451 0.95760536 1.1779175e-40
-0.02368168 -1.4729501 0.95801497 1.1779175e-40
-0.018919282 -1.4706718 0.95803982 1.1779175e-40
0.04882003 -1.4712466 0.95777202 2.7893028e-39
0.053570714 -1.4737272 0.95765346 1.1351905e-39
-0.016079111 -1.4693186 0.95711696 8.9440579e-39
-0.011813373 -1.4678428 0.95780617 8.7603869e-39
-0.0075586941 -1.4665202 0.95842385 5.8180581e-39
-0.0047404729 -1.4656812 0.95726621 4.2550596e-39
0.029035076 -1.4653012 0.95744413 2.0962724e-40
0.033262342 -1.4660513 0.95709294 2.8760894e-39
0.037488222 -1.4669864 0.95820606 9.4068381e-39
0.041730292 -1.4682455 0.95761806 1.0235158e-38
0.045985706 -1.4699088 0.95684123 8.0303931e-39
-0.0019130036 -1.4649308 0.95761752 8.5319458e-40
0.0023181001 -1.4641173 0.95799834 1.1779175e-40
0.007938371 -1.4637661 0.95661241 1.1779175e-40
0.013562817 -1.4638096 0.95659202 1.1779175e-40
0.017783009 -1.4639413 0.95808071 1.1779175e-40
0.02200019 -1.4643317 0.9578979 1.1779175e-40
0.026219867 -1.4649055 0.95762926 1.1779175e-40
0.36031622 -1.6073227 0.9628495 7.0036127e-39
0.36213544 -1.6003299 0.96253502 6.6330183e-39
0.36417505 -1.5944399 0.96177417 6.5411828e-39
0.36641681 -1.5902605 0.96192873 6.633377e-39
0.46301144 -1.5914434 0.96142334 1.1699797e-38
0.36865056 -1.5861083 0.96207786 6.5411814e-39
0.371815 -1.5822058 0.96320963 6.4486284e-39
0.45821434 -1.5837178 0.96147895 1.1147343e-38
0.37683687 -1.5766109 0.96237355 6.448627e-39
0.45270476 -1.5773929 0.96203661 1.0318306e-38
0.38286123 -1.5716801 0.96234512 6.5408212e-39
0.44635719 -1.5720119 0.96327865 9.3967123e-39
0.38768715 -1.5688081 0.96304828 6.7255768e-39
0.39312837 -1.5660328 0.96263874 8.203239e-39
0.43293887 -1.5650299 0.96307361 9.5861735e-39
0.4379656 -1.5671278 0.96216393 9.2152176e-39
0.44296831 -1.569814 0.96261299 9.0286529e-39
0.39825821 -1.5642968 0.96231723 8.6653018e-39
0.40204617 -1.5631561 0.96173948 8.4801903e-39
0.40720588 -1.5623053 0.96264607 8.6649417e-39
